# .PCD v0.7 - Point Cloud Data file format
VERSION 0.7
FIELDS x y z
SIZE 4 4 4
TYPE F F F
COUNT 1 1 1
WIDTH 203
HEIGHT 1
VIEWPOINT 0 0 0 1 0 0 0
POINTS 203
DATA ascii
-0.044663802 -0.16315688 0.42748329
-0.034964569 -0.16289414 0.42885983
-0.024479028 -0.16335317 0.42872429
-0.014983449 -0.16339715 0.42811114
-0.0054029045 -0.16336098 0.42801663
0.0046791304 -0.16335462 0.42799994
0.013947268 -0.16298275 0.42876482
0.025708793 -0.16305418 0.42881265
0.035105914 -0.16357225 0.42786148
0.045201488 -0.16374822 0.42828381
0.052184522 -0.16456638 0.42899993
0.074314915 -0.16565631 0.42899993
-0.04469946 -0.15521966 0.42781016
-0.034782127 -0.15489836 0.42772833
-0.024743767 -0.15510827 0.42752123
-0.015223081 -0.1549343 0.42737901
-0.0052970736 -0.1550964 0.42791292
0.0045765433 -0.15515521 0.42807791
0.014645756 -0.15494539 0.42798945
0.024924746 -0.15483512 0.42726028
0.034884904 -0.15511431 0.42751008
0.044850808 -0.15500171 0.42771867
0.053916533 -0.15391923 0.42838997
0.06434048 -0.15056983 0.42899993
0.075693972 -0.15051039 0.42899993
0.084647492 -0.15009429 0.42899996
0.090584293 -0.1500943 0.42900002
0.024730001 -0.14506279 0.42607751
0.054987907 -0.14486057 0.4268381
0.065220438 -0.14481224 0.42832246
0.075426482 -0.14504167 0.42900047
0.085039057 -0.1450922 0.42900044
0.090773761 -0.14624168 0.42899993
0.054789327 -0.1350646 0.42603278
0.065244928 -0.13520223 0.427939
0.073724367 -0.13470899 0.42896447
0.086322255 -0.13425322 0.42875019
0.091428049 -0.13429745 0.42886361
0.054864511 -0.12523095 0.42478099
0.075208515 -0.12497753 0.42776012
0.085276611 -0.12496525 0.42772016
0.092757814 -0.12441577 0.42847624
0.085132934 -0.11469421 0.42699954
0.094701767 -0.11474402 0.42783728
0.10056317 -0.1123261 0.42899996
0.085055672 -0.10504569 0.42661092
0.094891474 -0.10493913 0.42737201
0.10068949 -0.10512614 0.42899996
0.085067414 -0.095004663 0.42667234
0.094955474 -0.094706364 0.42706901
0.10163702 -0.094390504 0.42882603
0.095051721 -0.084961496 0.42732951
0.10178918 -0.087204263 0.42899993
0.11736308 -0.080368392 0.42900002
0.12601566 -0.081126295 0.42899993
0.13049984 -0.082389437 0.42899999
0.094802625 -0.075085856 0.42673615
0.1048186 -0.072967514 0.42850006
0.11518507 -0.074067414 0.42872635
0.1250245 -0.074717723 0.4290005
0.13196671 -0.073490322 0.42899993
0.16708067 -0.070869505 0.42899999
0.10510044 -0.064809531 0.42702299
0.11486172 -0.064998694 0.42743009
0.12479823 -0.065086998 0.42794371
0.13475524 -0.064501815 0.42827687
0.14482245 -0.063378051 0.42844009
0.15511775 -0.063165486 0.42843679
0.16548482 -0.064303964 0.42857629
0.17443745 -0.063399181 0.42867187
0.18466519 -0.063070677 0.42867163
0.19521695 -0.06281288 0.42847392
0.10473809 -0.0550845 0.42491969
0.12515245 -0.055260982 0.42626977
0.13513106 -0.054801095 0.42727721
0.14483538 -0.055027977 0.42776129
0.15465514 -0.054893393 0.42733306
0.16476239 -0.054907903 0.42744428
0.17492254 -0.054936323 0.42766643
0.18490008 -0.054908175 0.42744428
0.19430737 -0.05486187 0.42709863
0.12619238 -0.046193849 0.42532817
0.13513574 -0.045199633 0.42608982
0.14507264 -0.045130607 0.42664865
0.15485165 -0.045129556 0.42565703
0.16487263 -0.045176189 0.42515591
0.1749382 -0.045354698 0.42673886
0.1847477 -0.045154002 0.42604542
0.19419886 -0.04523278 0.42587656
-0.032268971 -0.16614375 0.43000001
-0.028470688 -0.16639696 0.43000001
0.018184902 -0.16468775 0.42999995
0.02172997 -0.16506757 0.42999995
0.056980964 -0.16366997 0.43000016
0.064967126 -0.16411795 0.43000019
0.074638829 -0.16325 0.43001834
0.085085154 -0.16421112 0.4312183
0.095171578 -0.16457501 0.43269411
0.10463435 -0.164657 0.43206066
0.11466175 -0.16442692 0.43214408
0.12492056 -0.16453356 0.43242192
0.13519503 -0.16467905 0.43255684
0.14503373 -0.16459376 0.43280715
0.15470128 -0.16476117 0.4328067
0.16489503 -0.16459978 0.4323155
0.17486349 -0.16418903 0.431835
0.18466803 -0.16443703 0.43154091
0.057680935 -0.15743625 0.4300001
0.065145038 -0.15587822 0.43000022
0.074562155 -0.15588935 0.43025011
0.084880866 -0.15551072 0.43097582
0.095291071 -0.15516439 0.43159077
0.10503118 -0.15490878 0.43174699
0.1148591 -0.15496294 0.43161088
0.1248446 -0.15476064 0.43215966
0.13497378 -0.15485786 0.43212703
0.14508153 -0.15514463 0.43179956
0.15530477 -0.15486488 0.43199956
0.1648902 -0.15464678 0.43202135
0.17487824 -0.15495756 0.4317672
0.18512815 -0.15514632 0.43111685
0.078134492 -0.14031541 0.42999998
0.082996294 -0.14051798 0.43000001
0.095755994 -0.14476119 0.43048197
0.10537487 -0.14495537 0.43110615
0.11484484 -0.14511861 0.43136021
0.12489843 -0.1451568 0.43234423
0.13487418 -0.1449376 0.4316887
0.1448139 -0.14521025 0.43099985
0.15502825 -0.1449413 0.43138018
0.16520067 -0.14503975 0.43222591
0.17486745 -0.1453407 0.43140748
0.18526603 -0.1453509 0.43188742
0.19491859 -0.14512055 0.43237963
0.20066105 -0.14407541 0.43293756
0.077152312 -0.13632528 0.4300001
0.082825698 -0.13693027 0.4300001
0.096278958 -0.13533792 0.43036625
0.10521985 -0.1350579 0.43099985
0.11518337 -0.13498501 0.43118924
0.12479407 -0.13524209 0.43115768
0.1346803 -0.1350763 0.43105984
0.15497729 -0.13506758 0.43102983
0.16495745 -0.13528568 0.43205646
0.17466788 -0.13537779 0.43201953
0.19492669 -0.13492286 0.43253559
0.2006028 -0.135746 0.43286672
0.097518295 -0.12555116 0.43020466
0.10520332 -0.124886 0.43092987
0.11537215 -0.12490573 0.43099985
0.12501684 -0.12490559 0.43099985
0.13481453 -0.12479421 0.43097073
0.18532574 -0.12490872 0.43100983
0.19520734 -0.1250826 0.43142831
0.20056191 -0.12516752 0.43189996
0.099404879 -0.11853857 0.43000001
0.10563964 -0.11512452 0.4305349
0.11537214 -0.11475328 0.43099985
0.12501685 -0.11475331 0.43099985
0.13480529 -0.1148408 0.43094161
0.14496556 -0.11465131 0.43103078
0.16516747 -0.11478907 0.43112975
0.17527081 -0.11475331 0.43099985
0.10598129 -0.10522784 0.43039483
0.11538114 -0.10501656 0.43084601
0.12496268 -0.10455427 0.43081105
0.13461609 -0.10475186 0.4309071
0.1451277 -0.10492393 0.43125513
0.15509389 -0.10468729 0.43135971
0.1649214 -0.10493135 0.43071735
0.17535192 -0.10476425 0.43088531
0.10643715 -0.095589645 0.43000019
0.11505844 -0.095196374 0.43000022
0.1249345 -0.09479896 0.43049997
0.13502774 -0.095343314 0.43071711
0.14483002 -0.094890267 0.43071103
0.15476258 -0.094833657 0.43043339
0.16502267 -0.095266782 0.43053058
0.17475814 -0.095172592 0.43112773
0.10581331 -0.084524319 0.43016261
0.11507892 -0.085159704 0.43000022
0.12502824 -0.08583717 0.43000022
0.13540818 -0.08514341 0.43014464
0.14503457 -0.085382916 0.43091479
0.15486398 -0.085254759 0.43071994
0.16473538 -0.085113674 0.43000022
0.10541144 -0.078174509 0.43005565
0.11288879 -0.078656591 0.42999995
0.12118171 -0.079542853 0.43000001
0.13674916 -0.07557939 0.43000019
0.14502253 -0.075005218 0.43011126
0.15479004 -0.075076215 0.43051001
0.16459146 -0.075192809 0.43000022
0.17486414 -0.074984916 0.43000022
0.18505853 -0.075011678 0.43015018
0.19529174 -0.075051047 0.43038005
0.13916026 -0.069160879 0.43000001
0.14535262 -0.068631418 0.43000001
0.15460663 -0.068401225 0.4300001
0.16200063 -0.068806365 0.43000001
0.17667888 -0.06819021 0.43000004
0.18511951 -0.068147995 0.4300001
0.19442624 -0.067749634 0.43020016
