# .PCD v0.7 - Point Cloud Data file format
VERSION 0.7
FIELDS x y z
SIZE 4 4 4
TYPE F F F
COUNT 1 1 1
WIDTH 141
HEIGHT 1
VIEWPOINT 0 0 0 1 0 0 0
POINTS 141
DATA ascii
-0.089600332 -0.040173974 0.40100002
-0.087392651 -0.032805551 0.40344447
-0.086085714 -0.025239186 0.40441379
-0.08170037 -0.017358124 0.40575004
-0.095619954 -0.042938247 0.41766664
-0.088880703 -0.041212615 0.41875002
0.11330371 -0.044668131 0.41740003
-0.086314179 -0.03377055 0.41594446
-0.074179076 -0.030824592 0.41900009
-0.067763805 -0.030725893 0.41900009
-0.054613668 -0.030838694 0.41900009
0.087485813 -0.030133715 0.41900006
0.10870556 -0.037042469 0.41900003
-0.083393499 -0.025408033 0.41612852
-0.075298071 -0.024686618 0.41864976
-0.065269411 -0.024813803 0.41889414
-0.054864317 -0.02458307 0.41804737
-0.04707456 -0.023135662 0.41860461
-0.02214957 -0.022443609 0.41900003
-0.015245652 -0.022296062 0.41900006
-0.0077992366 -0.022109257 0.41900006
0.0076008509 -0.022948608 0.41900003
0.015018554 -0.024108255 0.4185876
0.025351657 -0.024582133 0.41839778
0.03511763 -0.024651069 0.41881809
0.044784334 -0.024345949 0.41900018
0.051406749 -0.025089223 0.41900012
0.066748574 -0.024475116 0.419
0.075032204 -0.024949973 0.41853747
0.085206494 -0.02525801 0.41835457
0.092256136 -0.023773275 0.419
0.10582454 -0.02442871 0.41815147
-0.08111605 -0.018202418 0.41290906
-0.076008365 -0.01894699 0.41792864
-0.065449357 -0.019263297 0.41870007
-0.055372961 -0.019189682 0.41710004
-0.048059359 -0.019212687 0.41760001
0.094888046 -0.019277098 0.41900003
-0.00534083 -0.084746487 0.4231002
0.0046302639 -0.084797047 0.42336011
0.074854411 -0.084777109 0.42574424
0.084874086 -0.084768385 0.42569974
-0.0053399187 -0.074760191 0.42301026
0.004634867 -0.074881464 0.42366999
0.014619968 -0.074938804 0.42398
0.045145404 -0.074742436 0.42370749
0.055221863 -0.074716151 0.42317542
0.064821891 -0.075036883 0.4238297
0.074587487 -0.074980408 0.42422977
0.084575653 -0.074974202 0.42419982
-0.045188796 -0.06479042 0.42293021
-0.035222542 -0.064786963 0.42291024
-0.025276838 -0.064825833 0.42316014
-0.015309696 -0.064826772 0.42318016
-0.0053408169 -0.06480813 0.42307022
0.0046242662 -0.064790629 0.42296028
0.014569651 -0.064726815 0.42254031
0.045344695 -0.064941876 0.4232623
0.055314064 -0.064917907 0.42309299
0.065132231 -0.064614169 0.42318016
0.074925981 -0.064919062 0.42361054
0.08476682 -0.064859279 0.42364702
-0.094789617 -0.054703236 0.42200053
-0.084848575 -0.054705523 0.4220005
-0.074991725 -0.0547662 0.42247039
-0.065010406 -0.05473673 0.4222604
-0.055028375 -0.054703247 0.42200053
-0.045084678 -0.054699466 0.42197052
-0.035147734 -0.054703247 0.42200053
-0.025207415 -0.054703232 0.42200053
-0.015267939 -0.054707423 0.42203054
-0.0053328504 -0.054789957 0.42266032
0.0046242522 -0.054831687 0.42299026
0.014561005 -0.054737963 0.42226043
0.045350872 -0.054682449 0.42182052
0.055127211 -0.054746173 0.42317203
0.065066852 -0.054954901 0.42315903
0.075314276 -0.054794483 0.42269027
0.085201673 -0.054945372 0.42304146
0.094768576 -0.054793466 0.42358062
0.1148744 -0.055146374 0.42538974
-0.094437569 -0.046766218 0.42150024
-0.084794067 -0.044743601 0.42056659
-0.075077564 -0.044677198 0.42096278
-0.064965412 -0.044760995 0.42198056
-0.055022243 -0.044758145 0.42195052
-0.04504269 -0.044720087 0.42157039
-0.035121921 -0.044733353 0.42170057
-0.025207415 -0.044762921 0.42200053
-0.015267101 -0.044762924 0.42200053
-0.0053270687 -0.044769868 0.42206052
0.0046097576 -0.044747677 0.42183053
0.014551488 -0.044754151 0.42191043
0.035266735 -0.044779286 0.42139244
0.045201201 -0.044598971 0.42042989
0.055225004 -0.044696268 0.42135033
0.065154187 -0.044697713 0.42138043
0.075192474 -0.04476453 0.42201051
0.085051827 -0.04469851 0.42253157
0.094736725 -0.045069788 0.42367023
0.10476583 -0.04491125 0.42337042
0.11422427 -0.047644634 0.42262512
-0.083486341 -0.035778519 0.42044064
-0.075192399 -0.035564404 0.42020473
-0.064575322 -0.035013739 0.42059132
-0.054827701 -0.035689849 0.42040503
-0.044898227 -0.034675915 0.42022967
-0.035052583 -0.034728471 0.42087007
-0.025134495 -0.034724887 0.42078
-0.015247408 -0.034783751 0.42150044
-0.005323797 -0.03480567 0.42177039
0.0046013724 -0.034745529 0.42105007
0.014960746 -0.03468094 0.4207432
0.025335439 -0.034735497 0.42037639
0.035265159 -0.034663104 0.42005962
0.045191836 -0.03468645 0.4203397
0.055150911 -0.034724906 0.42079028
0.06516432 -0.034779899 0.42144027
0.075104624 -0.034788378 0.42153028
0.084719338 -0.034945466 0.42061037
0.095015205 -0.034805089 0.42173499
0.10453487 -0.034808118 0.42205474
-0.04325207 -0.02585985 0.42032769
-0.035100874 -0.024847321 0.42144051
-0.0260102 -0.02548944 0.42015797
-0.015103883 -0.027278043 0.42000005
-0.0045504649 -0.025547078 0.42007792
0.0035826704 -0.025354141 0.42004007
0.014294621 -0.029064115 0.42000005
0.021410119 -0.029216312 0.42000002
0.039712548 -0.029216312 0.42000002
0.046204962 -0.027423173 0.42000005
0.055853382 -0.025218366 0.42000005
0.062972583 -0.025984526 0.42000005
0.07137081 -0.029216312 0.41999999
0.096468426 -0.025344638 0.4203116
0.10299696 -0.025343599 0.42050007
-0.039031148 -0.019369112 0.42100003
-0.029080398 -0.019346109 0.42050004
0.097587802 -0.019323105 0.42000002
0.1000611 -0.019323105 0.42000002
