# .PCD v0.7 - Point Cloud Data file format
VERSION 0.7
FIELDS x y z
SIZE 4 4 4
TYPE F F F
COUNT 1 1 1
WIDTH 59
HEIGHT 1
VIEWPOINT 0 0 0 1 0 0 0
POINTS 59
DATA ascii
-0.18169104 -0.010666152 0.31341666
-0.17515637 -0.010767924 0.31461361
-0.1656343 -0.010771011 0.31538704
-0.15396947 -0.010586264 0.31451729
-0.14570566 -0.010673777 0.31597301
-0.13478833 -0.010939005 0.31731582
-0.12500404 -0.010921425 0.31782356
-0.11450455 -0.010878813 0.31784996
-0.10499386 -0.010933103 0.31779999
-0.095173508 -0.011199644 0.31737253
-0.18300898 -0.0077634337 0.31601855
-0.17507279 -0.0080451304 0.31714526
-0.16515997 -0.0078219837 0.31731251
-0.15501679 -0.0079057366 0.31663775
-0.14509358 -0.0082798516 0.3179273
-0.13620207 -0.0088873012 0.31862077
-0.12447027 -0.0091009224 0.31891677
-0.11565095 -0.0091791833 0.3190001
-0.10509162 -0.0094164694 0.31900004
-0.094672039 -0.0093162814 0.31900007
-0.19138055 -0.0019517618 0.32779998
-0.18472655 -0.0035658444 0.32484421
-0.17493594 -0.0039074067 0.32427713
-0.16496061 -0.0035571561 0.323955
-0.15473327 -0.0040945485 0.32415396
-0.14503032 -0.0043334649 0.32396701
-0.13502878 -0.005427063 0.32382399
-0.12500359 -0.0054490729 0.32333016
-0.1149248 -0.0059956433 0.32381728
-0.10499801 -0.0064788056 0.32432264
-0.095130041 -0.0061105536 0.32440582
-0.19134247 -0.00041379794 0.33040005
-0.18505874 -0.00078886916 0.33135998
-0.17625014 -0.00073482725 0.3309412
-0.16412339 -0.00068677671 0.33182606
-0.15524468 -0.0010062816 0.3316552
-0.14457208 -0.00096097548 0.33183333
-0.13504045 -0.0011938552 0.33166665
-0.12487417 -0.0012528319 0.33219501
-0.11474911 -0.0016888978 0.33327127
-0.10490671 -0.0018887901 0.33331665
-0.19272162 0.002275211 0.33509526
-0.18533421 0.0021442871 0.3364571
-0.17535421 0.0018566555 0.33598152
-0.16546021 0.00091191859 0.33706462
-0.15433082 0.0021788904 0.33651611
-0.14538848 0.0019211429 0.33677202
-0.13516945 0.0015890119 0.3368431
-0.1246985 0.0016379567 0.33733329
-0.11603359 0.00071479846 0.33795235
-0.10516846 0.00043036137 0.33842865
-0.18542761 0.0048232195 0.34045455
-0.17267372 0.0041892212 0.34152633
-0.16538717 0.0036137861 0.34159258
-0.1457469 0.0043794508 0.33999997
-0.13551559 0.0040071132 0.34035295
-0.12389967 0.0039574676 0.34040001
-0.11461256 0.0033901858 0.34264609
-0.10512486 0.003040045 0.3429715
