# .PCD v0.7 - Point Cloud Data file format
VERSION 0.7
FIELDS x y z
SIZE 4 4 4
TYPE F F F
COUNT 1 1 1
WIDTH 162
HEIGHT 1
VIEWPOINT 0 0 0 1 0 0 0
POINTS 162
DATA ascii
-0.084940478 -0.011187332 0.31599998
-0.077756323 -0.010650922 0.31623077
-0.068809129 -0.010597262 0.31900001
-0.050682195 -0.010705771 0.31825
-0.045045357 -0.011538397 0.31823537
-0.03493198 -0.011888533 0.31819054
-0.025010018 -0.012279629 0.31780362
-0.01473497 -0.012348934 0.31788903
-0.0046673031 -0.012159237 0.31698486
0.0051998361 -0.012194636 0.31711757
0.014002648 -0.012810902 0.31826472
0.025081931 -0.012199908 0.31804895
0.033838794 -0.012434662 0.31853199
0.045971539 -0.012749604 0.31840625
0.055156823 -0.012902084 0.31726325
0.063345291 -0.013124191 0.31860873
0.088389158 -0.01247461 0.31874999
0.093102649 -0.012341033 0.31860867
0.1156875 -0.013293807 0.31855562
0.12766623 -0.012628874 0.31749997
0.13484238 -0.013086183 0.31747833
0.14189471 -0.013011696 0.31718522
-0.084580921 -0.0088357171 0.31796673
-0.077809609 -0.008938699 0.31806666
0.0031117762 -0.0094164703 0.31900001
0.025018342 -0.0091852657 0.31900004
-0.064177699 -0.010574956 0.32110003
-0.051903542 -0.010199758 0.32000002
-0.042104553 -0.010199758 0.32000002
-0.034943759 -0.010199758 0.32000002
-0.024041472 -0.010421533 0.32038894
-0.015728453 -0.010380864 0.32011768
-0.0070543373 -0.010199758 0.32000002
0.0091516757 -0.010199758 0.32000002
0.015682938 -0.011023321 0.32027024
0.020458197 -0.010199758 0.32000002
0.03624253 -0.010696891 0.32017398
0.044676382 -0.010832693 0.32038236
0.054847423 -0.010593804 0.32053852
0.065782487 -0.011405242 0.32070586
0.074854925 -0.011733396 0.32178688
0.084593013 -0.011152558 0.32189745
0.096076176 -0.011177282 0.32059464
0.10530533 -0.011686835 0.32169238
0.11431935 -0.011397906 0.32082975
0.12069975 -0.010295381 0.32300001
0.13570756 -0.010541342 0.32043484
0.14279139 -0.010592578 0.32050008
-0.085106492 -0.0059710587 0.32442263
-0.074538171 -0.0065978402 0.32408229
-0.065582186 -0.0075606913 0.32475621
-0.054471709 -0.0068798168 0.3261739
-0.044993687 -0.0069796438 0.32370999
-0.035085719 -0.0069698505 0.32436195
-0.025075262 -0.0073369034 0.32526973
-0.015387898 -0.0075102397 0.3250362
-0.0052725873 -0.0076887095 0.32476619
0.0049558706 -0.0073610591 0.32378405
0.01506674 -0.0072968267 0.32471737
0.024785858 -0.0065845991 0.32265911
0.034965534 -0.0074829045 0.32381704
0.0451038 -0.0070334859 0.32528582
0.055274922 -0.0067761899 0.32625476
0.064517334 -0.0069999932 0.32553393
0.074924394 -0.007637979 0.3252973
0.084995165 -0.0080370978 0.32681361
0.094947167 -0.0080250492 0.32519695
0.10496111 -0.0076511288 0.3251729
0.11504761 -0.0077135386 0.32544601
0.12261784 -0.0075859395 0.32640007
0.13714939 -0.0073763719 0.32516673
0.14404666 -0.0070192832 0.32552114
-0.094881207 -0.0017590044 0.33425012
-0.084942222 -0.0019935905 0.33338591
-0.074846901 -0.0020963494 0.33320898
-0.065048471 -0.0027354483 0.33340004
-0.055567365 -0.0025085041 0.33384287
-0.044916004 -0.0026289511 0.33442855
-0.034175795 -0.0022332463 0.33161405
-0.025279645 -0.0029163971 0.33365515
-0.014484799 -0.0032889491 0.33440635
-0.0050831549 -0.0033077218 0.33452174
0.0042026225 -0.0032245088 0.33516356
0.0152561 -0.0030096062 0.33500007
0.024872825 -0.0023566636 0.33528581
0.036157727 -0.0032226467 0.33486274
0.044701174 -0.0022605218 0.33338991
0.054480914 -0.0019726255 0.33115685
0.066970043 -0.0030603982 0.33353126
0.075164944 -0.0034948206 0.33456668
0.08459837 -0.0038539381 0.33384004
0.094867036 -0.0035912357 0.33389023
0.10437977 -0.0031424463 0.33508953
0.11526137 -0.0039585307 0.33403781
0.12404285 -0.0033750157 0.33542225
0.13476537 -0.0038258785 0.33427584
0.14588881 -0.0031231032 0.33366668
0.1518157 -0.0023583102 0.33584622
-0.09411294 0.00037395436 0.33900002
-0.073814705 0.00075156346 0.33842111
-0.066287741 0.00079131394 0.33847624
-0.058179401 0.00037395433 0.33900002
-0.033336837 0.00060339493 0.33410001
0.04687896 0.0003703298 0.33571428
0.056107339 0.00036678408 0.33249998
0.098025598 0.00070950418 0.33600003
0.10079478 0.00063860806 0.33833337
-0.052034248 -0.00042657257 0.34060001
-0.046293795 -0.00065580651 0.34092858
-0.023494871 -0.00067780842 0.34125
-0.015627054 -0.00077134511 0.34138092
-0.0051031373 -0.00062682352 0.34062505
0.0061108251 -0.00082866085 0.34131822
0.013762705 -0.0010178724 0.34094739
0.025599893 -0.00053377374 0.34093335
0.034188878 -0.00080789818 0.34147373
0.069057092 -0.00042623855 0.34033334
0.074569851 -0.00069340685 0.34050009
0.086581141 -0.0009078313 0.34093335
0.092373095 -0.00082922494 0.34158334
0.10738633 -0.00076197559 0.34133336
0.11458409 -0.0011239393 0.34183332
0.12573706 -0.00082775799 0.34077784
0.13385484 -0.0013609895 0.34033334
0.14491366 -0.00090335606 0.34222728
0.15428223 -0.00042582111 0.34
-0.095096454 0.0024826522 0.34322023
-0.085004769 0.0020873046 0.34415385
-0.074962117 0.0024825148 0.34200004
-0.064204574 0.0023431326 0.34216672
-0.054473534 0.0021123637 0.3438333
-0.045506626 0.0017827381 0.3448
-0.03450134 0.0016500138 0.34299999
-0.024583535 0.0010502199 0.34548476
-0.014961524 0.0011996056 0.34591669
-0.0051233405 0.0013082904 0.3445555
0.0054851929 0.0014696397 0.34413639
0.013763855 0.0012254707 0.34471425
0.024647646 0.00037726361 0.34200001
0.035098333 0.0010219306 0.34345832
0.040816754 0.00057641749 0.34050003
0.068522833 0.00037689591 0.3416667
0.074992172 0.00043536801 0.34235713
0.085143566 0.0010988846 0.3431482
0.093169719 0.0011249717 0.34572732
0.10691049 0.0011370077 0.34421426
0.11458486 0.0011728363 0.34553128
0.1230544 0.00064710353 0.34233335
0.13493694 0.0020291419 0.34900001
0.14761242 0.00037850463 0.34312502
0.15337721 0.00037726364 0.34200001
-0.096347958 0.0047257934 0.35075003
-0.088245042 0.004746587 0.35225001
-0.062220015 0.0041024815 0.35050002
-0.046097122 0.0040062997 0.351125
-0.033051904 0.002912493 0.35650003
-0.024911378 0.0031841232 0.35380775
-0.015338139 0.0034423443 0.35415384
-0.0077191531 0.0030016969 0.3527143
0.089979731 0.0020349561 0.35000002
0.095655978 0.0020388323 0.35066667
0.11230589 0.0028716447 0.35150003
