# .PCD v0.7 - Point Cloud Data file format
VERSION 0.7
FIELDS x y z
SIZE 4 4 4
TYPE F F F
COUNT 1 1 1
WIDTH 67
HEIGHT 1
VIEWPOINT 0 0 0 1 0 0 0
POINTS 67
DATA ascii
-0.22158583 -0.065748848 0.40899995
-0.21920024 -0.065863535 0.40900001
-0.20416036 -0.060671832 0.40899995
-0.19832635 -0.060243648 0.40900001
-0.20443799 -0.055155654 0.40900028
-0.19550574 -0.05430067 0.40900025
-0.18857184 -0.05259658 0.40899995
-0.22249416 -0.042461853 0.40900016
-0.21504775 -0.044858903 0.40878525
-0.20516241 -0.045147642 0.40894723
-0.19620325 -0.046952151 0.40900022
-0.18965566 -0.049646139 0.40900001
-0.23275171 -0.034710791 0.40801764
-0.22520751 -0.03446703 0.40808019
-0.21482067 -0.034963574 0.40761068
-0.20753421 -0.034687217 0.40859675
-0.23225231 -0.025047472 0.40585423
-0.22489385 -0.024850322 0.40633917
-0.21499938 -0.025062401 0.40711665
-0.20514508 -0.024762906 0.40768525
-0.19885407 -0.021691803 0.40869999
-0.2319601 -0.017664788 0.40465003
-0.22513182 -0.017972395 0.40570596
-0.21519524 -0.018278494 0.40695101
-0.2046468 -0.01816278 0.40633333
-0.19821507 -0.018198911 0.40833333
-0.23481873 -0.08508309 0.41450554
-0.22490199 -0.084744632 0.41348395
-0.21523328 -0.084543772 0.41315994
-0.20519067 -0.084826246 0.41321459
-0.23477335 -0.075147934 0.41364777
-0.22503315 -0.074864082 0.4125697
-0.21508721 -0.075064473 0.41348213
-0.2052473 -0.074872904 0.41336355
-0.19498795 -0.074781634 0.41212711
-0.23423584 -0.06505309 0.41200012
-0.22524677 -0.064557061 0.41043887
-0.21475063 -0.064837523 0.41037971
-0.20531483 -0.065801866 0.41122103
-0.19479153 -0.064997718 0.41154942
-0.18501799 -0.065215304 0.41274232
-0.23406464 -0.054919757 0.41158131
-0.22478303 -0.055173904 0.41068977
-0.21493259 -0.055036161 0.41018355
-0.20927374 -0.052825782 0.41000006
-0.19224451 -0.058097053 0.4102273
-0.18447858 -0.055512629 0.41076323
-0.17502744 -0.054859385 0.41239029
-0.23382486 -0.044866528 0.41102579
-0.22619054 -0.046008904 0.41018561
-0.21605708 -0.049767524 0.41000006
-0.2018695 -0.040431794 0.41000006
-0.19365653 -0.0430899 0.4103969
-0.18504886 -0.045154966 0.41171175
-0.23502748 -0.039144106 0.41000003
-0.20276289 -0.035080899 0.41024581
-0.19484414 -0.034933064 0.41110781
-0.18503019 -0.034896012 0.41231048
-0.20129466 -0.028520687 0.41000006
-0.19467972 -0.025366686 0.41098163
-0.18486001 -0.025342189 0.41203907
-0.17490424 -0.025395406 0.41252318
-0.16500495 -0.025169218 0.41477805
-0.19341259 -0.0185159 0.41058072
-0.18509436 -0.018433325 0.41117516
-0.17499071 -0.018392328 0.41102338
-0.16536801 -0.018607592 0.41228575
