# .PCD v0.7 - Point Cloud Data file format
VERSION 0.7
FIELDS x y z
SIZE 4 4 4
TYPE F F F
COUNT 1 1 1
WIDTH 137
HEIGHT 1
VIEWPOINT 0 0 0 1 0 0 0
POINTS 137
DATA ascii
-0.041751508 0.047163293 0.35777274
-0.036146771 0.045341954 0.35691109
-0.025854096 0.046552524 0.35712501
-0.12342969 0.009645517 0.36766669
-0.1151213 0.0088617075 0.36620003
-0.10303152 0.0076303408 0.36800003
-0.09389852 0.00796213 0.36662501
-0.087284714 0.006783443 0.366
-0.063363627 0.0066525466 0.36820003
-0.044389255 0.0074721696 0.36784616
-0.034685485 0.0074711097 0.36805353
-0.026626756 0.0067490479 0.36630774
-0.014224543 0.0064375913 0.36562502
-0.0088257315 0.0057404758 0.36520001
-0.12547502 0.010837314 0.36900002
-0.029429659 0.019529201 0.36900002
-0.042630468 0.025341902 0.36899999
-0.034424122 0.025102498 0.36888769
-0.026916344 0.024283919 0.36881244
-0.010307506 0.023875145 0.36900002
-0.0046841167 0.024717998 0.36899996
0.00050906627 0.024937488 0.36899999
0.015369507 0.025629738 0.36864281
0.020461779 0.026917305 0.36899999
-0.050414361 0.036540471 0.36899999
-0.044803727 0.035509959 0.36882862
-0.038469218 0.035044227 0.3690002
0.037324041 0.039520543 0.36900002
0.045633815 0.038610045 0.36885303
0.052162174 0.038446303 0.36888888
-0.04322008 0.042941947 0.36397874
-0.037831429 0.041739564 0.36494741
-0.023242392 0.044998974 0.36639029
-0.016362883 0.043283492 0.36802125
0.036773555 0.041210633 0.36899999
0.044019777 0.040651858 0.36847368
0.052662641 0.04035325 0.36866668
-0.11354184 0.0096713919 0.370125
-0.1034378 0.0088793924 0.3707
-0.094610415 0.0091400323 0.37066665
-0.085941575 0.0087307794 0.37084207
-0.074802838 0.0088656945 0.37133333
-0.06548702 0.0084610144 0.37116668
-0.050808638 0.0088495174 0.37066671
-0.045187406 0.0090531679 0.37021732
-0.034651522 0.0099951392 0.36999997
-0.024958685 0.009087963 0.37023804
-0.015308201 0.0087110577 0.37017387
-0.0053266282 0.0084948521 0.37180775
0.0040109372 0.0085569676 0.3733159
0.015170302 0.0090877432 0.37300003
0.027831979 0.0081975646 0.37411118
0.031419192 0.0084048379 0.37255561
0.068185255 0.0089670001 0.37385717
0.075335182 0.0080331126 0.37438455
0.085467912 0.0078037824 0.37502444
-0.12464228 0.015991392 0.37287146
-0.11493366 0.015272885 0.37310338
-0.10495546 0.015027758 0.37326148
-0.09491834 0.015282287 0.37311593
-0.085408427 0.015114654 0.37326792
-0.07432954 0.015547389 0.37328196
-0.064976424 0.014812036 0.3720893
-0.055123262 0.015579906 0.37144852
-0.045043252 0.015119809 0.37106642
-0.034864627 0.01517823 0.3704145
-0.024979426 0.014952237 0.37071851
-0.015104927 0.014843135 0.3710559
-0.0051245792 0.014849414 0.37158328
0.0047619073 0.015129964 0.37230495
0.015066301 0.015121904 0.37221608
0.025213785 0.014936483 0.37373635
0.034778513 0.015552896 0.37090173
0.044762772 0.01604474 0.37163645
0.054905947 0.016075891 0.37250471
0.065785877 0.015658339 0.37327614
0.07503207 0.014952154 0.37412146
0.084836431 0.014967474 0.37443635
-0.12503754 0.025179004 0.37552261
-0.11491812 0.02519056 0.37568575
-0.10488579 0.025118528 0.37461993
-0.095125824 0.025104459 0.37441337
-0.084989585 0.02510695 0.37444711
-0.07500767 0.024971792 0.37346432
-0.054915588 0.024868051 0.37086755
-0.045578081 0.024723273 0.37005726
-0.037945967 0.023242608 0.36999992
-0.02308258 0.025329141 0.3701756
-0.015185169 0.024853365 0.37048852
-0.0056023635 0.024865463 0.37029102
0.0052458709 0.024831377 0.37048757
0.014119454 0.023299601 0.37019998
0.025485151 0.024778496 0.37222141
0.035216458 0.024975833 0.37245473
0.044923224 0.025009237 0.37293407
0.054782584 0.024897998 0.37281767
0.064992741 0.025158534 0.37357488
0.074967057 0.025068138 0.3738102
0.084764615 0.02509751 0.37428111
-0.12484188 0.033853352 0.37476352
-0.11502124 0.034434225 0.37424392
-0.10511322 0.034316242 0.37454146
-0.094992615 0.034708221 0.37415147
-0.085027047 0.034931131 0.37378052
-0.075061746 0.035077505 0.37220031
-0.065083258 0.035081048 0.37197223
-0.055222876 0.034856644 0.37132022
-0.046525277 0.030663192 0.36999995
-0.033867132 0.034716833 0.37000015
-0.025204994 0.034911331 0.37081021
-0.01517297 0.034930259 0.37107632
-0.0051269517 0.034991506 0.37169698
0.0049418961 0.035031866 0.37211847
0.014931031 0.035004403 0.37100747
0.025106583 0.03502911 0.3720836
0.034984022 0.03473565 0.37102351
0.044742212 0.033833571 0.3713493
0.055491563 0.034278631 0.37149966
0.065131754 0.035035618 0.37338009
0.075257957 0.034912921 0.37508193
0.084628902 0.034837712 0.37325987
-0.081650265 0.041234463 0.37214285
-0.07571248 0.041934725 0.37202561
-0.06778603 0.04093717 0.37200001
-0.052169565 0.040499192 0.37
-0.033019725 0.040530466 0.37028572
-0.024912519 0.041394159 0.37073329
-0.01525344 0.040810458 0.36999995
-0.0051160483 0.041061845 0.37133336
0.0045909947 0.041451491 0.37206894
0.011047173 0.040608648 0.37100002
0.027699586 0.043724727 0.37271804
0.031827111 0.041734476 0.37109092
0.058120918 0.040526558 0.37025002
0.065457225 0.040570837 0.37266669
0.075698294 0.04084415 0.37412003
0.081395604 0.040827565 0.37300003
