# .PCD v0.7 - Point Cloud Data file format
VERSION 0.7
FIELDS x y z
SIZE 4 4 4
TYPE F F F
COUNT 1 1 1
WIDTH 194
HEIGHT 1
VIEWPOINT 0 0 0 1 0 0 0
POINTS 194
DATA ascii
-0.10084832 -0.024477204 0.40700004
-0.20416333 -0.16132388 0.4189131
-0.19546372 -0.16103123 0.4178462
-0.18557668 -0.16078562 0.41549996
-0.17445329 -0.16080022 0.41588882
-0.16505191 -0.16081169 0.41619992
-0.15517581 -0.16111569 0.41809684
-0.14723009 -0.16145203 0.41900012
-0.21186829 -0.15259331 0.419
-0.20481274 -0.15490374 0.41807026
-0.19508024 -0.15505314 0.41711479
-0.18493573 -0.1547755 0.41536939
-0.17519346 -0.15491101 0.41522071
-0.16521665 -0.15478031 0.41609633
-0.15525083 -0.15484904 0.41767901
-0.14803505 -0.15549725 0.41893336
-0.23288305 -0.14106861 0.41900009
-0.22540811 -0.1411413 0.41900012
-0.21439046 -0.14481178 0.4187806
-0.20483337 -0.14481176 0.41659996
-0.19472601 -0.1450834 0.41466683
-0.18494369 -0.14504206 0.41584432
-0.17516355 -0.1444982 0.4160102
-0.16506752 -0.14444996 0.41568613
-0.15544374 -0.14516224 0.41805291
-0.14796975 -0.14468598 0.419
-0.23235755 -0.1361925 0.41899991
-0.22510603 -0.13503647 0.41795722
-0.21518528 -0.13482739 0.4173297
-0.20478259 -0.13512917 0.41617793
-0.19506413 -0.13520059 0.41527626
-0.1748133 -0.13456245 0.41676149
-0.16553721 -0.13584216 0.4186404
-0.15480073 -0.13556564 0.41900024
-0.14922132 -0.13902886 0.41900006
-0.24107487 -0.12172408 0.41900006
-0.23413831 -0.124335 0.41872227
-0.22508128 -0.12493624 0.41752201
-0.18498927 -0.1253185 0.41735595
-0.17506143 -0.12541305 0.41826162
-0.16790439 -0.12433694 0.41899991
-0.15366267 -0.1238954 0.41900006
-0.14987931 -0.12093451 0.41900003
-0.24093288 -0.11689401 0.41838461
-0.23496316 -0.11476519 0.41661292
-0.22492895 -0.1145549 0.41595218
-0.17490731 -0.11536045 0.41885287
-0.16753891 -0.11473072 0.41900012
-0.15355138 -0.11533204 0.41900021
-0.14759283 -0.11458506 0.41900015
-0.24051352 -0.10267667 0.417
-0.2350564 -0.10486341 0.41576323
-0.22495018 -0.10489634 0.41547209
-0.18509655 -0.10499166 0.41672638
-0.17515306 -0.10500615 0.41828918
-0.16667286 -0.1048394 0.41900018
-0.15209997 -0.10802171 0.41900012
-0.14831662 -0.10826845 0.41900012
-0.2405135 -0.099238783 0.41700003
-0.23499691 -0.095052995 0.41600958
-0.22503202 -0.094924144 0.41551682
-0.19485119 -0.094599776 0.41439086
-0.18497227 -0.095036894 0.41580942
-0.17517532 -0.095174961 0.41793239
-0.16608146 -0.094505534 0.4187308
-0.19478001 -0.084761947 0.41363966
-0.18508092 -0.085295498 0.4160547
-0.17519745 -0.084998071 0.41700894
-0.16528802 -0.084615588 0.41769138
-0.15616411 -0.082750812 0.41870385
-0.14987931 -0.080468938 0.41900003
-0.18483591 -0.075209491 0.41388708
-0.17511965 -0.074950188 0.41591424
-0.16520089 -0.074733406 0.41660208
-0.15565056 -0.074998908 0.41836077
-0.14959732 -0.077649035 0.41900009
-0.16491175 -0.064890414 0.41460365
-0.15611227 -0.065061904 0.41803107
-0.16511744 -0.054936212 0.41484231
-0.15544364 -0.055176813 0.41805422
-0.14872785 -0.053861994 0.41900003
-0.16517524 -0.045162752 0.41651005
-0.15539131 -0.045174845 0.4181236
-0.14968193 -0.047306906 0.41900006
-0.111926 -0.040721152 0.41900012
-0.1066379 -0.041545492 0.41900012
-0.16515213 -0.03524575 0.41618645
-0.15532565 -0.035311252 0.41711521
-0.14511061 -0.034718949 0.41803321
-0.1348968 -0.034083694 0.41844943
-0.1251131 -0.034033459 0.41851094
-0.11504661 -0.034430604 0.41820377
-0.10594049 -0.035159044 0.41675991
-0.14493096 -0.025195492 0.41686949
-0.13503532 -0.024654528 0.41721758
-0.12523009 -0.024616057 0.41743976
-0.1153899 -0.024614392 0.41739991
-0.10655052 -0.025771854 0.41501459
-0.14488165 -0.01871142 0.41740006
-0.13498732 -0.01870269 0.41719994
-0.12514241 -0.018700507 0.41714993
-0.11514437 -0.018671308 0.41649994
-0.10742758 -0.018768463 0.41325006
-0.2426917 -0.16276619 0.42496562
-0.23503903 -0.16266452 0.424225
-0.2248387 -0.1625368 0.4231053
-0.21524294 -0.16189677 0.42123336
-0.20900264 -0.16218099 0.42000002
-0.14208089 -0.16161276 0.42006671
-0.13499972 -0.16200593 0.42186368
-0.12494878 -0.16250056 0.42315012
-0.11534663 -0.16251875 0.4244999
-0.24269286 -0.15554854 0.42390242
-0.23494202 -0.15512952 0.42253444
-0.22498666 -0.15499148 0.42110869
-0.21572635 -0.15589756 0.42025399
-0.14294827 -0.15467408 0.42049319
-0.13489106 -0.15535389 0.42267013
-0.12518466 -0.15531224 0.42394534
-0.11498882 -0.15477954 0.42458305
-0.24144977 -0.14477523 0.42045167
-0.2354548 -0.14543518 0.42048755
-0.2248957 -0.14624305 0.42022368
-0.21907723 -0.14702791 0.42000005
-0.14331731 -0.14497383 0.42014495
-0.13503011 -0.1449101 0.42296743
-0.12519269 -0.14530024 0.42494643
-0.11533895 -0.14528403 0.42535549
-0.24159932 -0.13476847 0.42060012
-0.2369391 -0.13413651 0.42005363
-0.16291495 -0.13151939 0.42000005
-0.15471646 -0.13375449 0.42000005
-0.14478804 -0.1345702 0.42011079
-0.13515988 -0.13490878 0.42260775
-0.2414882 -0.12657876 0.42031583
-0.23795678 -0.12781861 0.42000005
-0.1632559 -0.12533814 0.42000005
-0.15496129 -0.12518041 0.41999981
-0.14486706 -0.12491 0.4204489
-0.13507456 -0.12497818 0.42204624
-0.16265294 -0.11513884 0.42000005
-0.15800501 -0.1137483 0.42000005
-0.14249544 -0.11495353 0.42046431
-0.13513058 -0.11506151 0.42235178
-0.12477107 -0.11499395 0.4225449
-0.1147501 -0.11467473 0.42269108
-0.10495216 -0.11459074 0.4229002
-0.095076129 -0.11469103 0.42328012
-0.08524742 -0.11500395 0.42425722
-0.16219677 -0.10462449 0.42000005
-0.15517299 -0.10430834 0.42003515
-0.14431581 -0.1047832 0.42126217
-0.13482645 -0.10480396 0.4229711
-0.12503891 -0.10525847 0.42345455
-0.11525185 -0.10499943 0.42376694
-0.10512795 -0.10486013 0.4242619
-0.095365986 -0.10529786 0.42518532
-0.085393295 -0.10507332 0.4246996
-0.16139777 -0.095531709 0.42000005
-0.15489924 -0.095136844 0.42057991
-0.14507072 -0.095308185 0.42235181
-0.13486975 -0.094688319 0.42300025
-0.12494705 -0.094721057 0.42314023
-0.11513908 -0.094853632 0.42373997
-0.10535205 -0.095333569 0.42536515
-0.16062486 -0.089070208 0.42000002
-0.15380974 -0.087116249 0.42020378
-0.14491431 -0.08530546 0.42119062
-0.134826 -0.084711485 0.42278028
-0.12521546 -0.084931642 0.42404988
-0.15051968 -0.072322428 0.42000005
-0.14466627 -0.075031556 0.42042136
-0.13499036 -0.07476297 0.42177531
-0.150979 -0.065161623 0.42000005
-0.14463784 -0.065084845 0.4210709
-0.13457899 -0.064656541 0.4220905
-0.12471285 -0.06469509 0.42235044
-0.11511628 -0.064898841 0.42364997
-0.15023701 -0.05939059 0.42000002
-0.14420326 -0.055557869 0.42018741
-0.13492806 -0.054732978 0.42163256
-0.12476909 -0.054650303 0.42217705
-0.11477369 -0.054755263 0.42238036
-0.10480463 -0.05474446 0.42230043
-0.15036067 -0.043808788 0.42000005
-0.14475493 -0.045000061 0.41999951
-0.13503468 -0.044636142 0.42027703
-0.12512043 -0.044709969 0.42073515
-0.11553366 -0.045065574 0.42078418
-0.10495299 -0.046192791 0.42079464
-0.14331175 -0.039109517 0.42000005
-0.13490254 -0.039109521 0.42000002
-0.12500933 -0.039109521 0.42000002
-0.11907341 -0.039109517 0.42000002
